8.609436 8.609436 59.534126
9.738542 9.738542 67.341880
13.972691 13.972691 96.620958
14.819521 14.819521 102.476774
18.347978 18.347978 126.876006
19.194808 19.194808 132.731822
25.546031 25.546031 176.650439
26.533999 26.533999 183.482224
30.909287 30.909287 213.737271
6.091590 6.091590 52.015153
6.881240 6.881240 58.757858
7.896505 7.896505 67.427050
9.814228 9.814228 83.802191
11.167914 11.167914 95.361114
11.844758 11.844758 101.140576
12.634408 12.634408 107.883281
13.311251 13.311251 113.662742
15.341781 15.341781 131.001127
16.131432 16.131432 137.743832
16.921082 16.921082 144.486537
17.597926 17.597926 150.265998
20.418106 20.418106 174.347088
21.207757 21.207757 181.089793
21.884600 21.884600 186.869254
22.674250 22.674250 193.611959
23.351094 23.351094 199.391421
10.223193 10.223193 66.479283
13.334600 13.334600 86.712109
14.371735 14.371735 93.456384
15.260709 15.260709 99.237191
20.001900 20.001900 130.068163
20.890873 20.890873 135.848970
21.928008 21.928008 142.593246
24.594928 24.594928 159.935667
26.521037 26.521037 172.460750
27.558173 27.558173 179.205025
28.595308 28.595308 185.949300
29.484282 29.484282 191.730107
32.151201 32.151201 209.072529
16.676256 16.676256 50.048755
18.837993 18.837993 56.536557
21.617369 21.617369 64.878016
28.411399 28.411399 85.268250
30.573136 30.573136 91.756051
37.984805 37.984805 113.999943
40.146542 40.146542 120.487744
41.999459 41.999459 126.048717
44.161196 44.161196 132.536519
51.881685 51.881685 155.707239
53.734602 53.734602 161.268211
55.896339 55.896339 167.756013
58.058076 58.058076 174.243815
67.631482 67.631482 202.975508
-23.140568 -23.140568 40.304001
-26.587036 -26.587036 46.306725
-30.033504 -30.033504 52.309449
-32.987619 -32.987619 57.454640
-35.449381 -35.449381 61.742300
-39.388202 -39.388202 68.602555
-45.296432 -45.296432 78.892939
-48.742899 -48.742899 84.895662
-51.697015 -51.697015 90.040854
-55.143482 -55.143482 96.043578
-58.097597 -58.097597 101.188769
-60.559360 -60.559360 105.476429
-64.005828 -64.005828 111.479153
-66.959943 -66.959943 116.624344
-70.406410 -70.406410 122.627068
-73.852878 -73.852878 128.629792
-76.806993 -76.806993 133.774983
-79.268756 -79.268756 138.062643
-82.715223 -82.715223 144.065366
-85.669338 -85.669338 149.210558
-89.115806 -89.115806 155.213282
-92.562274 -92.562274 161.216005
-95.516389 -95.516389 166.361197
-98.962856 -98.962856 172.363921
-101.916972 -101.916972 177.509112
-104.378734 -104.378734 181.796772
-107.825202 -107.825202 187.799496
24.600894 24.600894 -39.900572
30.871710 30.871710 -50.071306
33.765932 33.765932 -54.765491
36.177785 36.177785 -58.677311
39.554378 39.554378 -64.153861
42.930971 42.930971 -69.630410
45.825194 45.825194 -74.324595
49.201787 49.201787 -79.801144
52.096010 52.096010 -84.495328
55.472603 55.472603 -89.971878
57.884455 57.884455 -93.883698
61.261049 61.261049 -99.360247
64.155271 64.155271 -104.054432
67.531865 67.531865 -109.530981
70.426087 70.426087 -114.225166
73.802681 73.802681 -119.701715
79.591126 79.591126 -129.090085
82.485349 82.485349 -133.784270
85.861942 85.861942 -139.260819
88.756165 88.756165 -143.955004
92.132758 92.132758 -149.431553
95.509351 95.509351 -154.908102
98.403574 98.403574 -159.602287
100.815427 100.815427 -163.514108
104.192020 104.192020 -168.990657
107.086243 107.086243 -173.684842
33.813668 33.813668 47.773929
38.040377 38.040377 53.745670
40.682069 40.682069 57.478009
44.380439 44.380439 62.703282
47.550471 47.550471 67.182088
51.248841 51.248841 72.407361
58.117242 58.117242 82.111441
60.758935 60.758935 85.843779
64.457305 64.457305 91.069053
67.627336 67.627336 95.547858
71.325706 71.325706 100.773132
74.495738 74.495738 105.251938
77.137430 77.137430 108.984276
84.534170 84.534170 119.434823
87.704202 87.704202 123.913629
91.402572 91.402572 129.138902
94.572603 94.572603 133.617708
98.270973 98.270973 138.842982
101.969343 101.969343 144.068255
107.781067 107.781067 152.279399
111.479437 111.479437 157.504673
114.649468 114.649468 161.983479
-34.863053 -34.863053 51.238040
-41.610741 -41.610741 61.155080
-42.173048 -42.173048 61.981500
-44.984585 -44.984585 66.113600
-48.920736 -48.920736 71.898540
-52.856887 -52.856887 77.683480
-56.230731 -56.230731 82.642001
-60.166882 -60.166882 88.426941
-63.540726 -63.540726 93.385461
-67.476877 -67.476877 99.170401
-71.413028 -71.413028 104.955341
-74.224565 -74.224565 109.087441
-77.598409 -77.598409 114.045961
-81.534560 -81.534560 119.830901
-84.908404 -84.908404 124.789421
-88.844555 -88.844555 130.574361
-92.780706 -92.780706 136.359301
-96.154550 -96.154550 141.317821
-100.090701 -100.090701 147.102761
-103.464545 -103.464545 152.061281
-106.276081 -106.276081 156.193381
-110.212233 -110.212233 161.978321
-113.586076 -113.586076 166.936841
-117.522228 -117.522228 172.721781
-121.458379 -121.458379 178.506721
-124.832223 -124.832223 183.465241
-66.727754 -66.727754 -34.954871
-103.892579 -103.892579 -54.423407
-126.698268 -126.698268 -66.370009
-130.921543 -130.921543 -68.582343
-135.989474 -135.989474 -71.237143
-141.902060 -141.902060 -74.334410
-146.969990 -146.969990 -76.989211
-184.979471 -184.979471 -96.900213
39.325142 39.325142 -52.844031
41.878723 41.878723 -56.275461
49.539465 49.539465 -66.569753
66.393097 66.393097 -89.217195
84.268162 84.268162 -113.237209
90.907471 90.907471 -122.158928
93.971768 93.971768 -126.276645
97.546781 97.546781 -131.080648
110.314684 110.314684 -148.237801
113.378981 113.378981 -152.355517
-46.454202 -46.454202 -15.985223
-51.965718 -51.965718 -17.881775
-56.689874 -56.689874 -19.507390
-60.626671 -60.626671 -20.862070
-66.138186 -66.138186 -22.758622
-76.373858 -76.373858 -26.280790
-81.098014 -81.098014 -27.906406
-86.609530 -86.609530 -29.802958
-92.121045 -92.121045 -31.699509
-96.845201 -96.845201 -33.325125
-102.356717 -102.356717 -35.221677
-107.080873 -107.080873 -36.847293
-122.040701 -122.040701 -41.995077
-126.764857 -126.764857 -43.620692
-132.276372 -132.276372 -45.517244
-137.000529 -137.000529 -47.142860
-142.512044 -142.512044 -49.039412
-151.960356 -151.960356 -52.290644
-156.684513 -156.684513 -53.916260
-162.196028 -162.196028 -55.812811
-166.920184 -166.920184 -57.438427
-172.431700 -172.431700 -59.334979
-3.611641 -3.611641 -7.219795
-4.140174 -4.140174 -8.276351
-4.756796 -4.756796 -9.508999
-5.373418 -5.373418 -10.741646
-5.901951 -5.901951 -11.798202
-6.342395 -6.342395 -12.678665
-6.959017 -6.959017 -13.911313
-7.487549 -7.487549 -14.967868
-8.104171 -8.104171 -16.200516
-8.720793 -8.720793 -17.433164
-9.249326 -9.249326 -18.489719
-9.689770 -9.689770 -19.370182
-10.306392 -10.306392 -20.602830
-10.834924 -10.834924 -21.659386
-11.451546 -11.451546 -22.892034
-11.980079 -11.980079 -23.948589
-12.596701 -12.596701 -25.181237
-13.213322 -13.213322 -26.413885
-13.653767 -13.653767 -27.294348
-14.182299 -14.182299 -28.350903
-14.798921 -14.798921 -29.583551
-15.327454 -15.327454 -30.640106
-15.944076 -15.944076 -31.872754
-16.560698 -16.560698 -33.105402
-17.089230 -17.089230 -34.161958
-17.529675 -17.529675 -35.042421
-18.146296 -18.146296 -36.275069
-18.674829 -18.674829 -37.331624
-19.291451 -19.291451 -38.564272
-43.475888 -43.475888 35.840328
-47.280028 -47.280028 38.976357
-60.866243 -60.866243 50.176460
-80.430392 -80.430392 66.304608
-84.777981 -84.777981 69.888640
-105.429028 -105.429028 86.912796
-109.233168 -109.233168 90.048825
-112.493859 -112.493859 92.736850
-8.198479 -8.198479 19.947035
-17.421768 -17.421768 42.387450
-19.471388 -19.471388 47.374209
-21.862611 -21.862611 53.192094
-23.912231 -23.912231 58.178853
-26.303454 -26.303454 63.996738
-28.011471 -28.011471 68.152371
-30.402694 -30.402694 73.970256
-32.452313 -32.452313 78.957015
-34.843537 -34.843537 84.774900
-36.893156 -36.893156 89.761659
-39.284379 -39.284379 95.579544
-40.992396 -40.992396 99.735177
-43.383619 -43.383619 105.553062
-45.433239 -45.433239 110.539821
-47.824462 -47.824462 116.357706
-49.874082 -49.874082 121.344465
-52.265305 -52.265305 127.162350
-53.973321 -53.973321 131.317983
-56.364544 -56.364544 137.135868
-58.414164 -58.414164 142.122627
-60.805387 -60.805387 147.940512
-62.855007 -62.855007 152.927271
-65.246230 -65.246230 158.745156
-67.637453 -67.637453 164.563042
-69.687073 -69.687073 169.549801
-71.395090 -71.395090 173.705433
-73.786313 -73.786313 179.523318
-75.835932 -75.835932 184.510077
-23.459176 -23.459176 91.627702
-24.910259 -24.910259 97.295395
-28.296119 -28.296119 110.520011
-32.649369 -32.649369 127.523090
-34.100452 -34.100452 133.190783
-35.793382 -35.793382 139.803091
-37.002618 -37.002618 144.526169
-38.695548 -38.695548 151.138477
-41.839561 -41.839561 163.418478
-43.290644 -43.290644 169.086171
-44.983575 -44.983575 175.698479
-46.676505 -46.676505 182.310788
-51.029754 -51.029754 199.313866
-52.480837 -52.480837 204.981559
-7.909956 -7.909956 22.676297
-9.431102 -9.431102 27.037123
-17.341058 -17.341058 49.713420
-19.470662 -19.470662 55.818577
-21.296036 -21.296036 61.051568
-23.425640 -23.425640 67.156725
-25.555244 -25.555244 73.261882
-28.901764 -28.901764 82.855700
-31.031367 -31.031367 88.960857
-32.856742 -32.856742 94.193848
-34.986346 -34.986346 100.299005
-37.115949 -37.115949 106.404162
-38.941324 -38.941324 111.637153
-42.592073 -42.592073 122.103137
-44.417447 -44.417447 127.336128
-46.547051 -46.547051 133.441285
-48.676655 -48.676655 139.546442
-50.502029 -50.502029 144.779433
-52.631633 -52.631633 150.884590
-55.978153 -55.978153 160.478408
-58.107757 -58.107757 166.583565
-60.237360 -60.237360 172.688722
-62.062735 -62.062735 177.921713
-64.192338 -64.192338 184.026870
-66.017713 -66.017713 189.259862
32.312597 32.312597 51.696843
39.728602 39.728602 63.561692
43.436605 43.436605 69.494116
49.793182 49.793182 79.663987
67.273767 67.273767 107.631131
70.452055 70.452055 112.716067
74.160058 74.160058 118.648491
84.754352 84.754352 135.598275
87.402925 87.402925 139.835722
94.289216 94.289216 150.853081
97.467505 97.467505 155.938017
101.175508 101.175508 161.870441
104.883510 104.883510 167.802866
108.061799 108.061799 172.887801
-37.911558 -37.911558 62.975824
-41.358064 -41.358064 68.700899
-44.312211 -44.312211 73.608106
-50.220506 -50.220506 83.422520
-53.174653 -53.174653 88.329727
-56.621159 -56.621159 94.054802
-60.067664 -60.067664 99.779877
-63.021811 -63.021811 104.687084
-66.468317 -66.468317 110.412159
-69.422464 -69.422464 115.319366
-75.330759 -75.330759 125.133780
-78.777264 -78.777264 130.858855
-81.731412 -81.731412 135.766062
-85.177917 -85.177917 141.491137
-88.132064 -88.132064 146.398344
-91.578570 -91.578570 152.123419
-97.486864 -97.486864 161.937833
-100.441012 -100.441012 166.845040
-103.887517 -103.887517 172.570115
-106.841664 -106.841664 177.477322
-13.260746 -13.260746 70.978479
-14.144795 -14.144795 75.710377
-25.637441 -25.637441 137.225059
-26.698301 -26.698301 142.903337
-32.356219 -32.356219 173.187488
-33.417079 -33.417079 178.865766
-34.654748 -34.654748 185.490424
-35.715608 -35.715608 191.168702
2.034502 2.034502 -82.684428
2.164364 2.164364 -87.962158
2.315869 2.315869 -94.119509
2.445731 2.445731 -99.397238
2.856960 2.856960 -116.110049
2.986822 2.986822 -121.387778
3.138327 3.138327 -127.545129
3.268189 3.268189 -132.822859
3.809280 3.809280 -154.813398
3.960785 3.960785 -160.970749
4.090647 4.090647 -166.248479
4.242153 4.242153 -172.405830
4.372014 4.372014 -177.683559
4.523520 4.523520 -183.840910
4.783243 4.783243 -194.396369
-13.882013 -13.882013 36.656231
-15.913527 -15.913527 42.020557
-17.606455 -17.606455 46.490829
-19.976555 -19.976555 52.749210
-22.346654 -22.346654 59.007591
-24.378168 -24.378168 64.371917
-26.748268 -26.748268 70.630298
-28.779782 -28.779782 75.994625
-30.472711 -30.472711 80.464897
-32.842810 -32.842810 86.723278
-34.874324 -34.874324 92.087604
-37.244424 -37.244424 98.345985
-39.614524 -39.614524 104.604366
-41.646038 -41.646038 109.968692
-44.016138 -44.016138 116.227073
-45.709066 -45.709066 120.697345
-47.740580 -47.740580 126.061672
-50.110680 -50.110680 132.320052
-50.787851 -50.787851 134.108161
-52.480779 -52.480779 138.578433
-54.512293 -54.512293 143.942760
-56.882393 -56.882393 150.201141
-58.913907 -58.913907 155.565467
-60.606836 -60.606836 160.035739
-62.976935 -62.976935 166.294120
-65.347035 -65.347035 172.552501
-67.378549 -67.378549 177.916827
-69.748649 -69.748649 184.175208
-71.780163 -71.780163 189.539535
-74.150262 -74.150262 195.797915
-54.728777 -54.728777 66.705432
-58.985459 -58.985459 71.893632
-62.634044 -62.634044 76.340661
-66.890727 -66.890727 81.528862
-82.093165 -82.093165 100.058148
-85.741750 -85.741750 104.505177
-89.998433 -89.998433 109.693377
-94.255115 -94.255115 114.881578
-108.849456 -108.849456 132.669693
-113.106138 -113.106138 137.857893
-117.362821 -117.362821 143.046093
-121.011406 -121.011406 147.493122
-128.308576 -128.308576 156.387180
3.152108 3.152108 9.501517
5.490768 5.490768 16.551029
6.202534 6.202534 18.696533
6.812620 6.812620 20.535536
7.524386 7.524386 22.681040
8.134471 8.134471 24.520043
8.642876 8.642876 26.052545
9.354642 9.354642 28.198049
10.066408 10.066408 30.343553
10.676494 10.676494 32.182556
11.388260 11.388260 34.328060
11.998345 11.998345 36.167063
12.506750 12.506750 37.699566
13.218516 13.218516 39.845070
13.828601 13.828601 41.684073
14.540367 14.540367 43.829576
15.252134 15.252134 45.975080
15.862219 15.862219 47.814083
16.573985 16.573985 49.959587
17.082390 17.082390 51.492090
17.692475 17.692475 53.331093
18.404241 18.404241 55.476597
19.116008 19.116008 57.622101
19.726093 19.726093 59.461104
20.437859 20.437859 61.606607
21.047944 21.047944 63.445611
21.556349 21.556349 64.978113
22.268115 22.268115 67.123617
-7.576988 -7.576988 -4.058348
-15.153976 -15.153976 -8.116696
-18.671864 -18.671864 -10.000928
-20.024897 -20.024897 -10.725633
-20.295504 -20.295504 -10.870574
-21.648538 -21.648538 -11.595279
-23.542785 -23.542785 -12.609866
-25.437032 -25.437032 -13.624453
-27.060672 -27.060672 -14.494099
-35.720087 -35.720087 -19.132211
-37.343728 -37.343728 -20.001857
-39.237975 -39.237975 -21.016444
-45.732536 -45.732536 -24.495028
-47.626783 -47.626783 -25.509614
-49.521030 -49.521030 -26.524201
-51.144670 -51.144670 -27.393847
-54.391951 -54.391951 -29.133139
-56.015591 -56.015591 -30.002785
-57.909839 -57.909839 -31.017372
-59.804086 -59.804086 -32.031959
55.676244 55.676244 46.359656
60.190535 60.190535 50.118548
65.457206 65.457206 54.503920
70.723878 70.723878 58.889293
75.238168 75.238168 62.648184
80.504840 80.504840 67.033557
88.781038 88.781038 73.924858
94.047710 94.047710 78.310231
99.314382 99.314382 82.695603
103.828672 103.828672 86.454494
109.095344 109.095344 90.839867
113.609634 113.609634 94.598758
122.638214 122.638214 102.116541
127.152504 127.152504 105.875432
132.419176 132.419176 110.260805
137.685848 137.685848 114.646177
142.200138 142.200138 118.405069
147.466810 147.466810 122.790441
151.981100 151.981100 126.549333
161.009680 161.009680 134.067115
166.276352 166.276352 138.452488
-3.244494 -3.244494 74.580307
-3.547313 -3.547313 81.541136
-3.979912 -3.979912 91.485177
-4.282732 -4.282732 98.446005
-5.320970 -5.320970 122.311704
-5.623789 -5.623789 129.272532
-5.883349 -5.883349 135.238957
-6.705287 -6.705287 154.132635
-6.964847 -6.964847 160.099059
-7.267666 -7.267666 167.059888
-7.527226 -7.527226 173.026313
-7.830045 -7.830045 179.987141
-8.132864 -8.132864 186.947970
-8.911543 -8.911543 204.847244
-9.171102 -9.171102 210.813668
-9.473922 -9.473922 217.774497
-4.314353 -4.314353 39.430658
-5.000728 -5.000728 45.703718
-5.589048 -5.589048 51.080626
-6.275423 -6.275423 57.353685
-6.863744 -6.863744 62.730593
-8.040385 -8.040385 73.484409
-8.726760 -8.726760 79.757468
-9.315081 -9.315081 85.134376
-10.001455 -10.001455 91.407435
-10.589776 -10.589776 96.784343
-11.276150 -11.276150 103.057403
-11.962525 -11.962525 109.330462
-12.452792 -12.452792 113.811219
-13.041113 -13.041113 119.188127
-13.727487 -13.727487 125.461186
-14.315808 -14.315808 130.838094
-15.002183 -15.002183 137.111153
-15.688557 -15.688557 143.384212
-16.276878 -16.276878 148.761120
-16.767145 -16.767145 153.241877
-17.453520 -17.453520 159.514936
-18.041840 -18.041840 164.891844
-18.728215 -18.728215 171.164904
-19.414589 -19.414589 177.437963
-20.002910 -20.002910 182.814871
-20.493177 -20.493177 187.295627
-21.179552 -21.179552 193.568687
-21.767873 -21.767873 198.945595
86.121045 86.121045 79.342725
90.189756 90.189756 83.091200
94.936586 94.936586 87.464421
115.958258 115.958258 106.831543
141.726760 141.726760 130.571886
146.473589 146.473589 134.945107
150.542300 150.542300 138.693582
-46.881417 -46.881417 -68.845755
-53.132273 -53.132273 -78.025189
-56.257701 -56.257701 -82.614906
-59.904033 -59.904033 -87.969576
-63.550366 -63.550366 -93.324245
-73.447554 -73.447554 -107.858349
-76.052077 -76.052077 -111.683113
-79.698409 -79.698409 -117.037783
-83.344742 -83.344742 -122.392453
-86.470170 -86.470170 -126.982170
-90.116502 -90.116502 -132.336840
-92.721025 -92.721025 -136.161604
-95.846453 -95.846453 -140.751321
-99.492785 -99.492785 -146.105991
-103.139118 -103.139118 -151.460660
-109.910878 -109.910878 -161.405047
-113.036306 -113.036306 -165.994764
-6.130686 -6.130686 38.408744
-7.027860 -7.027860 44.029535
-8.074562 -8.074562 50.587126
-9.121265 -9.121265 57.144716
-9.868910 -9.868910 61.828709
-11.065141 -11.065141 69.323098
-11.962315 -11.962315 74.943890
-12.709959 -12.709959 79.627883
-13.756662 -13.756662 86.185473
-14.803364 -14.803364 92.743064
-15.700538 -15.700538 98.363855
-16.747241 -16.747241 104.921446
-17.494885 -17.494885 109.605439
-18.392059 -18.392059 115.226231
-19.438761 -19.438761 121.783821
-20.335935 -20.335935 127.404613
-21.382637 -21.382637 133.962203
-22.429340 -22.429340 140.519793
-23.326514 -23.326514 146.140585
-24.074158 -24.074158 150.824578
-25.120861 -25.120861 157.382169
-26.018034 -26.018034 163.002960
-27.064737 -27.064737 169.560551
-28.111439 -28.111439 176.118141
-29.008613 -29.008613 181.738933
-29.756258 -29.756258 186.422926
-30.802960 -30.802960 192.980516
-31.700134 -31.700134 198.601308
-32.746836 -32.746836 205.158898
37.210286 37.210286 23.249011
40.466186 40.466186 25.283300
48.838500 48.838500 30.514327
52.094400 52.094400 32.548616
54.885172 54.885172 34.292291
58.141072 58.141072 36.326580
61.396972 61.396972 38.360868
64.187743 64.187743 40.104544
72.560058 72.560058 45.335572
75.815958 75.815958 47.369860
78.606729 78.606729 49.113536
81.862629 81.862629 51.147824
85.118529 85.118529 53.182113
93.490843 93.490843 58.413140
96.281615 96.281615 60.156816
99.537515 99.537515 62.191105
102.793415 102.793415 64.225393
-30.721126 -30.721126 60.565551
-33.054376 -33.054376 65.165467
-35.776501 -35.776501 70.532035
-38.498626 -38.498626 75.898602
-47.831627 -47.831627 94.298264
-50.553752 -50.553752 99.664832
-52.887002 -52.887002 104.264747
-55.609127 -55.609127 109.631315
-58.331252 -58.331252 114.997883
-62.608877 -62.608877 123.431061
-65.331002 -65.331002 128.797628
-67.664253 -67.664253 133.397544
-70.386378 -70.386378 138.764112
-73.108503 -73.108503 144.130679
-80.108253 -80.108253 157.930425
-82.441503 -82.441503 162.530341
-85.163628 -85.163628 167.896909
-39.327105 -39.327105 32.265315
-43.182704 -43.182704 35.428582
-47.809422 -47.809422 39.224501
-53.207260 -53.207260 43.653074
-59.376218 -59.376218 48.714300
-68.629654 -68.629654 56.306139
-72.485253 -72.485253 59.469405
-82.509809 -82.509809 67.693897
-87.136527 -87.136527 71.489816
-92.534365 -92.534365 75.918389
-97.932203 -97.932203 80.346962
-102.558921 -102.558921 84.142881
-111.812358 -111.812358 91.734720
-127.234752 -127.234752 104.387785
-131.861470 -131.861470 108.183704
-137.259308 -137.259308 112.612277
-161.164019 -161.164019 132.224528
-166.561857 -166.561857 136.653100
-171.188576 -171.188576 140.449020
10.214890 10.214890 52.483823
11.539042 11.539042 59.287282
12.674030 12.674030 65.118818
13.998182 13.998182 71.922276
14.944005 14.944005 76.781890
16.078993 16.078993 82.613426
17.403145 17.403145 89.416884
18.727298 18.727298 96.220343
19.862286 19.862286 102.051879
21.186438 21.186438 108.855337
22.321426 22.321426 114.686873
23.645578 23.645578 121.490332
24.591401 24.591401 126.349945
25.726389 25.726389 132.181481
27.050541 27.050541 138.984940
28.374694 28.374694 145.788398
29.509681 29.509681 151.619934
30.833834 30.833834 158.423393
31.968822 31.968822 164.254929
32.914645 32.914645 169.114542
34.238797 34.238797 175.918000
35.562949 35.562949 182.721459
36.697937 36.697937 188.552995
38.022090 38.022090 195.356454
39.157077 39.157077 201.187989
40.481230 40.481230 207.991448
41.427053 41.427053 212.851061
24.934449 24.934449 39.065996
28.051255 28.051255 43.949245
29.999259 29.999259 47.001276
32.726464 32.726464 51.274120
35.064069 35.064069 54.936557
37.012073 37.012073 57.988588
39.739278 39.739278 62.261431
42.076883 42.076883 65.923868
44.804088 44.804088 70.196711
47.531294 47.531294 74.469555
49.479297 49.479297 77.521585
52.596103 52.596103 82.404835
59.608917 59.608917 93.392146
62.336123 62.336123 97.664990
64.673727 64.673727 101.327427
67.400933 67.400933 105.600270
69.738537 69.738537 109.262707
71.686541 71.686541 112.314738
74.413746 74.413746 116.587581
77.140952 77.140952 120.860425
79.478556 79.478556 124.522862
82.205762 82.205762 128.795705
84.543366 84.543366 132.458142
-29.116326 -29.116326 13.074819
-112.936051 -112.936051 50.714448
-119.112241 -119.112241 53.487894
-124.406118 -124.406118 55.865134
-146.463941 -146.463941 65.770300
-152.640131 -152.640131 68.543746
-157.934009 -157.934009 70.920986
-164.110199 -164.110199 73.694432
-186.168021 -186.168021 83.599598
-191.461899 -191.461899 85.976838
-16.609519 -16.609519 -26.639019
-22.471703 -22.471703 -36.041026
-24.100087 -24.100087 -38.652694
-24.425764 -24.425764 -39.175028
-26.054148 -26.054148 -41.786697
-28.985240 -28.985240 -46.487700
-36.801484 -36.801484 -59.023709
-39.081222 -39.081222 -62.680045
-41.360960 -41.360960 -66.336381
-43.315021 -43.315021 -69.470383
-51.456942 -51.456942 -82.528726
-53.736680 -53.736680 -86.185062
-55.690741 -55.690741 -89.319064
-57.970479 -57.970479 -92.975400
-59.924540 -59.924540 -96.109402
-62.204278 -62.204278 -99.765738
-68.066462 -68.066462 -109.167745
-70.346200 -70.346200 -112.824081
-72.300261 -72.300261 -115.958083
