-3.560509 -3.560509 98.915537
-3.704368 -3.704368 102.912124
-3.884191 -3.884191 107.907858
-4.135944 -4.135944 114.901886
-5.502604 -5.502604 152.869466
-5.682428 -5.682428 157.865200
95.808464 95.808464 -30.300178
140.164235 140.164235 -44.328038
146.374042 146.374042 -46.291938
151.696735 151.696735 -47.975282
157.906543 157.906543 -49.939182
163.229235 163.229235 -51.622525
167.664812 167.664812 -53.025311
173.874620 173.874620 -54.989212
179.197313 179.197313 -56.672555
185.407120 185.407120 -58.636455
191.616928 191.616928 -60.600356
196.939621 196.939621 -62.283699
-45.448409 -45.448409 -38.883332
-49.918745 -49.918745 -42.707922
-63.329751 -63.329751 -54.181693
-68.545142 -68.545142 -58.643714
-73.760533 -73.760533 -63.105736
-78.230869 -78.230869 -66.930326
-83.446260 -83.446260 -71.392348
-87.171539 -87.171539 -74.579506
-91.641875 -91.641875 -78.404096
-96.857266 -96.857266 -82.866118
-101.327601 -101.327601 -86.690708
-106.542993 -106.542993 -91.152730
-111.758384 -111.758384 -95.614752
-125.169390 -125.169390 -107.088522
-129.639725 -129.639725 -110.913112
-134.855117 -134.855117 -115.375134
-140.070508 -140.070508 -119.837156
-144.540843 -144.540843 -123.661746
-157.951849 -157.951849 -135.135516
-163.167240 -163.167240 -139.597538
20.025691 20.025691 93.535266
29.449546 29.449546 137.551862
30.627528 30.627528 143.053937
31.609180 31.609180 147.638999
32.983492 32.983492 154.058086
34.161474 34.161474 159.560160
35.535786 35.535786 165.979247
36.910098 36.910098 172.398334
38.088080 38.088080 177.900408
39.462392 39.462392 184.319495
40.640374 40.640374 189.821570
42.014686 42.014686 196.240657
43.388998 43.388998 202.659744
18.365632 18.365632 51.374113
23.198693 23.198693 64.893616
28.998366 28.998366 81.117020
31.253794 31.253794 87.426122
32.864814 32.864814 91.932623
34.798039 34.798039 97.340425
37.053467 37.053467 103.649526
39.308896 39.308896 109.958628
41.242120 41.242120 115.366429
43.497549 43.497549 121.675531
45.430773 45.430773 127.083332
47.041793 47.041793 131.589833
49.297222 49.297222 137.898935
51.552650 51.552650 144.208036
53.485875 53.485875 149.615838
55.741303 55.741303 155.924939
59.285548 59.285548 165.839242
65.729629 65.729629 183.865246
26.008819 26.008819 22.088337
28.835864 28.835864 24.489243
35.055364 35.055364 29.771236
49.190592 49.190592 41.775767
53.148456 53.148456 45.137036
63.325820 63.325820 53.780298
66.718274 66.718274 56.661385
70.676138 70.676138 60.022654
74.634002 74.634002 63.383922
80.853502 80.853502 68.665916
84.811366 84.811366 72.027185
88.203820 88.203820 74.908272
92.161684 92.161684 78.269541
95.554139 95.554139 81.150628
98.381184 98.381184 83.551534
102.339048 102.339048 86.912803
106.296911 106.296911 90.274071
109.689366 109.689366 93.155159
113.647230 113.647230 96.516427
117.039684 117.039684 99.397515
119.866730 119.866730 101.798421
123.824594 123.824594 105.159689
-21.486097 -21.486097 -32.304448
-25.067114 -25.067114 -37.688523
-28.648130 -28.648130 -43.072597
-31.205999 -31.205999 -46.918365
-34.275441 -34.275441 -51.533286
-37.856457 -37.856457 -56.917361
-38.368031 -38.368031 -57.686514
-40.925900 -40.925900 -61.532282
-44.506916 -44.506916 -66.916356
-48.087932 -48.087932 -72.300431
-51.157375 -51.157375 -76.915352
-53.715243 -53.715243 -80.761120
-57.296260 -57.296260 -86.145194
-60.365702 -60.365702 -90.760116
-63.946718 -63.946718 -96.144190
-67.527734 -67.527734 -101.528265
-70.597177 -70.597177 -106.143186
-74.178193 -74.178193 -111.527261
-79.805504 -79.805504 -119.987949
-83.386521 -83.386521 -125.372024
-86.455963 -86.455963 -129.986945
-90.036979 -90.036979 -135.371020
-93.617996 -93.617996 -140.755094
-96.687438 -96.687438 -145.370016
-99.245307 -99.245307 -149.215783
-102.826323 -102.826323 -154.599858
-105.895765 -105.895765 -159.214779
-109.476782 -109.476782 -164.598854
-113.057798 -113.057798 -169.982928
35.894907 35.894907 29.795978
40.117837 40.117837 33.301387
62.640131 62.640131 51.996902
85.866247 85.866247 71.276653
90.089177 90.089177 74.782062
130.910836 130.910836 108.667683
135.837588 135.837588 112.757327
140.060518 140.060518 116.262737
144.987270 144.987270 120.352381
149.210200 149.210200 123.857790
154.136952 154.136952 127.947434
-81.480442 -81.480442 -2.808771
-111.835901 -111.835901 -3.855176
-116.628868 -116.628868 -4.020398
-122.220664 -122.220664 -4.213157
-146.984327 -146.984327 -5.066803
-152.576122 -152.576122 -5.259562
-158.167918 -158.167918 -5.452321
-162.960885 -162.960885 -5.617543
-177.339786 -177.339786 -6.113208
11.056548 11.056548 -14.810981
13.148327 13.148327 -17.613059
15.240106 15.240106 -20.415137
16.734234 16.734234 -22.416621
18.527188 18.527188 -24.818401
20.618967 20.618967 -27.620479
22.411921 22.411921 -30.022260
24.503700 24.503700 -32.824337
26.595480 26.595480 -35.626415
28.388433 28.388433 -38.028196
29.882561 29.882561 -40.029680
31.974341 31.974341 -42.831757
33.767294 33.767294 -45.233538
35.859074 35.859074 -48.035616
37.950853 37.950853 -50.837693
39.743806 39.743806 -53.239474
41.835586 41.835586 -56.041551
43.329714 43.329714 -58.043035
45.122668 45.122668 -60.444816
47.214447 47.214447 -63.246894
49.306226 49.306226 -66.048971
51.099180 51.099180 -68.450752
53.190959 53.190959 -71.252830
54.983913 54.983913 -73.654610
56.478041 56.478041 -75.656094
58.569820 58.569820 -78.458172
60.362774 60.362774 -80.859953
62.454553 62.454553 -83.662030
64.546332 64.546332 -86.464108
66.339286 66.339286 -88.865889
-50.208886 -50.208886 -7.595870
-54.691823 -54.691823 -8.274073
-60.071346 -60.071346 -9.087916
-66.347457 -66.347457 -10.037400
-71.726981 -71.726981 -10.851243
-78.003091 -78.003091 -11.800727
-84.279202 -84.279202 -12.750211
-88.762138 -88.762138 -13.428413
-94.141662 -94.141662 -14.242257
-100.417773 -100.417773 -15.191740
-105.797296 -105.797296 -16.005584
-112.073407 -112.073407 -16.955067
-118.349518 -118.349518 -17.904551
-123.729041 -123.729041 -18.718394
-128.211978 -128.211978 -19.396597
-134.488089 -134.488089 -20.346081
-139.867612 -139.867612 -21.159924
-146.143723 -146.143723 -22.109408
-151.523246 -151.523246 -22.923251
-157.799357 -157.799357 -23.872735
-164.075468 -164.075468 -24.822219
-168.558404 -168.558404 -25.500421
-173.937928 -173.937928 -26.314264
-180.214039 -180.214039 -27.263748
-185.593562 -185.593562 -28.077591
-191.869673 -191.869673 -29.027075
-198.145784 -198.145784 -29.976559
-20.224551 -20.224551 44.427175
-22.120602 -22.120602 48.592222
-34.128929 -34.128929 74.970857
-38.553050 -38.553050 84.689302
-40.449101 -40.449101 88.854349
-42.661161 -42.661161 93.713572
-44.557213 -44.557213 97.878619
-56.565540 -56.565540 124.257254
-58.777600 -58.777600 129.116477
-60.989660 -60.989660 133.975699
-62.885712 -62.885712 138.140746
-65.097772 -65.097772 142.999969
-66.993824 -66.993824 147.165016
-69.205884 -69.205884 152.024239
-9.918757 -9.918757 112.544987
-12.113172 -12.113172 137.444321
-12.727608 -12.727608 144.416134
-13.254268 -13.254268 150.391974
-13.868704 -13.868704 157.363788
-14.483141 -14.483141 164.335601
-17.204216 -17.204216 195.210775
-17.730875 -17.730875 201.186615
-18.345312 -18.345312 208.158428
12.456218 12.456218 15.266754
13.727261 13.727261 16.824586
15.506721 15.506721 19.005550
17.031972 17.031972 20.874949
18.811432 18.811432 23.055914
20.336683 20.336683 24.925312
23.387185 23.387185 28.664109
25.166645 25.166645 30.845074
26.691896 26.691896 32.714472
28.471356 28.471356 34.895437
29.996607 29.996607 36.764835
31.776067 31.776067 38.945800
33.047110 33.047110 40.503632
34.572361 34.572361 42.373031
36.351821 36.351821 44.553995
38.131281 38.131281 46.734960
39.656532 39.656532 48.604359
40.927574 40.927574 50.162191
42.707034 42.707034 52.343155
44.232285 44.232285 54.212554
46.011745 46.011745 56.393519
47.791205 47.791205 58.574483
49.316456 49.316456 60.443882
50.587499 50.587499 62.001714
52.366959 52.366959 64.182679
53.892210 53.892210 66.052077
55.671670 55.671670 68.233042
20.942237 20.942237 -33.210121
24.006954 24.006954 -38.070139
27.582458 27.582458 -43.740160
30.136389 30.136389 -47.790174
33.711893 33.711893 -53.460195
36.776611 36.776611 -58.320213
40.352115 40.352115 -63.990233
43.416832 43.416832 -68.850251
46.992336 46.992336 -74.520272
50.567840 50.567840 -80.190293
52.610985 52.610985 -83.430304
56.186489 56.186489 -89.100325
59.761993 59.761993 -94.770346
62.826710 62.826710 -99.630363
66.402214 66.402214 -105.300384
69.466932 69.466932 -110.160402
73.042435 73.042435 -115.830423
75.596367 75.596367 -119.880437
76.617939 76.617939 -121.500443
79.171870 79.171870 -125.550458
82.236588 82.236588 -130.410476
85.812092 85.812092 -136.080496
88.876809 88.876809 -140.940514
92.452313 92.452313 -146.610535
96.027817 96.027817 -152.280556
98.581748 98.581748 -156.330570
101.646466 101.646466 -161.190588
105.221970 105.221970 -166.860609
108.286687 108.286687 -171.720626
111.862191 111.862191 -177.390647
-0.625041 -0.625041 -53.995846
-1.412129 -1.412129 -121.990615
-1.470003 -1.470003 -126.990231
-1.539452 -1.539452 -132.989769
-1.620476 -1.620476 -139.989231
-1.689925 -1.689925 -145.988769
-1.851972 -1.851972 -159.987692
39.048874 39.048874 58.065048
44.883763 44.883763 66.741434
67.325645 67.325645 100.112152
70.018671 70.018671 104.116638
73.160534 73.160534 108.788538
75.853560 75.853560 112.793024
78.995423 78.995423 117.464924
82.137287 82.137287 122.136825
87.074501 87.074501 129.478383
96.051253 96.051253 142.826670
99.193117 99.193117 147.498570
48.289423 48.289423 26.067213
53.463290 53.463290 28.860129
86.231113 86.231113 46.548594
92.267290 92.267290 49.806996
97.441157 97.441157 52.599912
103.477335 103.477335 55.858313
109.513513 109.513513 59.116715
118.998935 118.998935 64.237060
125.035113 125.035113 67.495462
130.208980 130.208980 70.288378
136.245158 136.245158 73.546779
157.802936 157.802936 85.183928
162.976803 162.976803 87.976843
169.012981 169.012981 91.235245
190.570759 190.570759 102.872394
4.308217 4.308217 35.971578
5.123285 5.123285 42.777012
5.938353 5.938353 49.582446
6.636983 6.636983 55.415675
7.452051 7.452051 62.221109
8.034243 8.034243 67.082133
8.732873 8.732873 72.915362
9.547941 9.547941 79.720796
10.363009 10.363009 86.526229
11.061639 11.061639 92.359458
11.876707 11.876707 99.164892
12.575337 12.575337 104.998121
13.390405 13.390405 111.803555
13.972596 13.972596 116.664579
14.787665 14.787665 123.470013
15.486294 15.486294 129.303242
16.301362 16.301362 136.108675
16.999992 16.999992 141.941904
17.815060 17.815060 148.747338
18.630129 18.630129 155.552772
19.212320 19.212320 160.413796
19.910950 19.910950 166.247025
20.726018 20.726018 173.052459
21.424648 21.424648 178.885688
22.239716 22.239716 185.691121
23.054784 23.054784 192.496555
23.753414 23.753414 198.329784
24.335605 24.335605 203.190808
25.150674 25.150674 209.996242
25.849303 25.849303 215.829471
-32.692062 -32.692062 33.536518
-78.703113 -78.703113 80.736061
-82.335565 -82.335565 84.462341
-86.573425 -86.573425 88.809667
-90.811285 -90.811285 93.156994
-105.341090 -105.341090 108.062113
-109.578950 -109.578950 112.409439
-113.816810 -113.816810 116.756766
-117.449261 -117.449261 120.483045
-132.584475 -132.584475 136.009211
